ply 
format ascii 1.0
comment Created by Garud Ltd
element vertex 3327
property double x
property double y
property double z
end_header 
160 17 255 907
160 17 255 907
159 17 255 907
158 17 254 907
157 17 254 907
156 17 253 907
155 17 253 907
155 17 253 907
154 17 253 907
153 17 253 907
152 17 253 907
151 17 252 907
150 17 252 907
149 17 252 907
148 17 252 907
147 17 252 907
147 17 252 907
146 17 252 907
145 17 252 907
144 17 251 907
143 17 251 907
142 17 250 907
142 17 249 907
141 17 250 907
140 17 250 907
140 17 250 907
139 17 249 907
138 17 248 907
138 17 247 907
137 17 246 907
136 17 245 907
136 17 245 907
135 17 244 907
134 17 244 907
133 17 242 907
133 17 241 907
132 17 240 907
131 17 239 907
130 17 238 907
130 17 239 907
129 17 238 907
128 17 237 907
127 17 238 907
126 17 237 907
126 17 236 907
125 17 236 907
124 17 235 907
123 17 235 907
122 17 235 907
122 17 235 907
121 17 235 907
120 17 235 907
119 17 235 907
118 17 234 907
118 17 235 907
117 17 235 907
116 17 236 907
115 17 235 907
114 17 235 907
114 17 234 907
113 17 233 907
112 17 233 907
112 17 232 907
111 17 231 907
110 17 232 907
109 17 231 907
108 17 232 907
108 17 231 907
107 17 231 907
106 17 230 907
105 17 230 907
104 17 230 907
104 17 229 907
103 17 229 907
102 17 228 907
101 17 227 907
100 17 226 907
99 17 227 907
98 17 226 907
98 17 226 907
97 17 226 907
96 17 226 907
95 17 225 907
94 17 225 907
93 17 224 907
92 17 224 907
91 17 223 907
90 17 222 907
88 17 222 907
87 17 221 907
86 17 220 907
85 17 219 907
84 17 218 907
83 17 217 907
82 17 216 907
81 17 216 907
80 17 214 907
79 17 212 907
78 17 211 907
77 17 210 907
77 17 210 907
76 17 208 907
75 17 208 907
74 17 207 907
73 17 207 907
73 17 205 907
72 17 205 907
71 17 204 907
71 17 203 907
70 17 202 907
69 17 200 907
69 17 197 907
68 17 195 907
68 17 192 907
67 17 192 907
67 17 191 907
66 17 190 907
65 17 188 907
65 17 185 907
64 17 184 907
64 17 183 907
63 17 183 907
63 17 183 907
62 17 181 907
62 17 178 907
62 17 176 907
61 17 173 907
61 17 170 907
60 17 170 907
60 17 171 907
60 17 170 907
59 17 172 907
59 17 171 907
59 17 173 907
58 17 172 907
58 17 170 907
58 17 169 907
57 17 171 907
57 17 173 907
57 17 172 907
57 17 170 907
56 17 169 907
56 17 166 907
56 17 166 907
56 17 165 907
55 17 165 907
55 17 164 907
55 17 167 907
55 17 166 907
55 17 165 907
54 17 163 907
54 17 162 907
54 17 164 907
54 17 162 907
53 17 161 907
53 17 161 907
53 17 161 907
54 18 123 927
55 18 123 927
55 18 123 927
56 18 121 927
56 18 120 927
57 18 119 927
57 18 119 927
58 18 120 927
58 18 119 927
59 18 119 927
59 18 118 927
60 18 119 927
60 18 119 927
60 18 119 927
61 18 118 927
61 18 116 927
61 18 118 927
62 18 117 927
62 18 116 927
62 18 115 927
63 18 113 927
63 18 111 927
63 18 109 927
64 18 110 927
64 18 109 927
64 18 108 927
65 18 107 927
65 18 106 927
65 18 105 927
66 18 105 927
66 18 103 927
66 18 101 927
66 18 100 927
67 18 98 927
67 18 96 927
67 18 95 927
68 18 94 927
68 18 93 927
68 18 92 927
68 18 93 927
69 18 93 927
69 18 93 927
69 18 90 927
70 18 89 927
70 18 88 927
70 18 88 927
71 18 87 927
71 18 86 927
72 18 84 927
72 18 83 927
72 18 82 927
73 18 81 927
73 18 80 927
74 18 78 927
75 18 76 927
75 18 75 927
76 18 73 927
76 18 72 927
77 18 71 927
78 18 69 927
78 18 68 927
79 18 67 927
80 18 67 927
81 18 66 927
81 18 66 927
82 18 65 927
83 18 64 927
83 18 63 927
84 18 62 927
85 18 61 927
86 18 60 927
87 18 60 927
87 18 58 927
88 18 58 927
89 18 59 927
90 18 59 927
90 18 58 927
91 18 57 927
92 18 56 927
93 18 55 927
93 18 55 927
94 18 55 927
95 18 54 927
95 18 54 927
96 18 53 927
97 18 52 927
97 18 52 927
98 18 52 927
99 18 51 927
99 18 50 927
100 18 50 927
101 18 48 927
101 18 48 927
102 18 48 927
102 18 46 927
103 18 45 927
104 18 46 927
104 18 45 927
105 18 45 927
106 18 44 927
107 18 44 927
107 18 43 927
108 18 42 927
109 18 41 927
110 18 41 927
110 18 41 927
111 18 40 927
112 18 40 927
113 18 40 927
114 18 40 927
114 18 39 927
115 18 39 927
116 18 39 927
117 18 38 927
118 18 38 927
119 18 38 927
120 18 37 927
121 18 37 927
122 18 36 927
123 18 36 927
124 18 35 927
125 18 34 927
126 18 34 927
127 18 34 927
128 18 33 927
129 18 33 927
130 18 31 927
131 18 30 927
133 18 30 927
134 18 29 927
135 18 29 927
136 18 28 927
137 18 28 927
139 18 27 927
140 18 27 927
141 18 26 927
142 18 26 927
143 18 26 927
144 18 26 927
146 18 26 927
147 18 26 927
148 18 26 927
149 18 26 927
150 18 26 927
151 18 26 927
152 18 26 927
153 18 26 927
153 18 26 927
154 18 26 927
155 18 26 927
156 18 26 927
157 18 26 927
158 18 26 927
159 18 25 927
160 18 25 927
161 18 25 927
162 18 25 927
163 18 25 927
164 18 25 927
165 18 24 927
166 18 24 927
167 18 24 927
168 18 23 927
169 18 22 927
170 18 22 927
171 18 22 927
172 18 22 927
173 18 22 927
175 18 22 927
176 18 22 927
177 18 21 927
178 18 22 927
179 18 22 927
180 18 22 927
181 18 22 927
182 18 22 927
183 18 22 927
184 18 21 927
185 18 21 927
186 18 21 927
187 18 21 927
187 18 21 927
188 18 21 927
189 18 22 927
190 18 21 927
191 18 21 927
192 18 21 927
193 18 21 927
194 18 21 927
195 18 21 927
196 18 21 927
197 18 21 927
198 18 20 927
199 18 20 927
200 18 20 927
201 18 20 927
202 18 20 927
203 18 20 927
204 18 20 927
205 18 20 927
206 18 20 927
207 18 20 927
208 18 20 927
210 18 20 927
211 18 20 927
212 18 20 927
213 18 20 927
214 18 20 927
216 18 20 927
217 18 20 927
218 18 20 927
219 18 20 927
221 18 20 927
222 18 20 927
223 18 20 927
224 18 20 927
225 18 21 927
226 18 21 927
228 18 21 927
229 18 21 927
230 18 21 927
231 18 22 927
233 18 21 927
234 18 21 927
235 18 22 927
236 18 22 927
237 18 22 927
239 18 22 927
240 18 22 927
241 18 23 927
242 18 23 927
243 18 22 927
244 18 22 927
245 18 22 927
246 18 22 927
248 18 22 927
249 18 21 927
250 18 21 927
251 18 21 927
252 18 21 927
253 18 21 927
254 18 21 927
255 18 21 927
256 18 22 927
258 18 21 927
259 18 21 927
260 18 21 927
261 18 21 927
262 18 21 927
264 18 20 927
265 18 21 927
266 18 21 927
267 18 21 927
268 18 22 927
269 18 22 927
270 18 22 927
271 18 22 927
272 18 22 927
273 18 22 927
274 18 22 927
276 18 22 927
277 18 22 927
278 18 22 927
279 18 22 927
280 18 23 927
281 18 24 927
282 18 24 927
283 18 24 927
284 18 24 927
285 18 24 927
286 18 24 927
287 18 25 927
288 18 25 927
289 18 25 927
290 18 25 927
291 18 25 927
292 18 26 927
293 18 26 927
294 18 26 927
295 18 27 927
296 18 27 927
298 18 27 927
299 18 27 927
300 18 27 927
301 18 27 927
302 18 27 927
303 18 28 927
304 18 29 927
305 18 30 927
306 18 30 927
307 18 30 927
308 18 30 927
309 18 31 927
310 18 31 927
311 18 32 927
312 18 33 927
313 18 33 927
315 18 34 927
316 18 34 927
317 18 35 927
317 18 35 927
318 18 35 927
319 18 36 927
320 18 37 927
321 18 37 927
322 18 37 927
322 18 38 927
323 18 38 927
324 18 38 927
325 18 39 927
326 18 40 927
327 18 40 927
328 18 40 927
328 18 41 927
329 18 41 927
330 18 42 927
331 18 42 927
331 18 43 927
332 18 44 927
333 18 44 927
334 18 45 927
335 18 46 927
336 18 47 927
337 18 48 927
337 18 49 927
338 18 50 927
340 18 51 927
341 18 52 927
342 18 53 927
343 18 54 927
344 18 55 927
344 18 56 927
345 18 57 927
346 18 58 927
347 18 59 927
348 18 61 927
349 18 61 927
350 18 62 927
351 18 63 927
352 18 64 927
353 18 65 927
354 18 66 927
354 18 67 927
355 18 67 927
356 18 68 927
357 18 69 927
358 18 70 927
359 18 71 927
359 18 71 927
360 18 72 927
361 18 72 927
362 18 72 927
363 18 73 927
363 18 74 927
364 18 74 927
365 18 74 927
366 18 75 927
366 18 75 927
367 18 76 927
367 18 76 927
368 18 78 927
369 18 78 927
370 18 79 927
370 18 80 927
371 18 81 927
371 18 82 927
372 18 82 927
372 18 83 927
373 18 84 927
373 18 85 927
374 18 87 927
375 18 87 927
375 18 87 927
376 18 87 927
377 18 89 927
377 18 90 927
378 18 92 927
378 18 93 927
379 18 95 927
379 18 96 927
380 18 97 927
381 18 98 927
381 18 98 927
382 18 99 927
382 18 100 927
383 18 100 927
383 18 102 927
384 18 103 927
385 18 104 927
385 18 106 927
386 18 107 927
386 18 109 927
386 18 112 927
387 18 113 927
387 18 115 927
388 18 115 927
388 18 116 927
388 18 117 927
389 18 117 927
389 18 117 927
389 18 117 927
390 18 119 927
390 18 121 927
391 18 122 927
391 18 124 927
391 18 126 927
392 18 126 927
392 18 127 927
392 18 128 927
393 18 128 927
393 18 128 927
393 18 128 927
394 18 127 927
394 18 129 927
395 18 128 927
395 18 129 927
395 18 131 927
396 18 131 927
396 18 132 927
396 18 134 927
397 18 135 927
397 18 136 927
398 18 137 927
398 18 138 927
399 18 138 927
400 18 138 927
400 18 140 927
401 18 140 927
401 18 139 927
402 18 141 927
402 18 143 927
403 18 145 927
403 18 145 927
404 18 147 927
404 18 150 927
404 18 151 927
404 18 154 927
404 18 156 927
404 18 158 927
404 18 161 927
404 18 162 927
404 18 164 927
403 18 166 927
403 18 168 927
403 18 169 927
402 18 170 927
402 18 170 927
401 18 173 927
401 18 174 927
400 18 175 927
399 18 176 927
398 18 178 927
398 18 180 927
397 18 180 927
397 18 180 927
396 18 184 927
396 18 183 927
395 18 183 927
395 18 184 927
394 18 182 927
394 18 182 927
393 18 182 927
393 18 181 927
393 18 184 927
392 18 184 927
392 18 188 927
391 18 190 927
391 18 191 927
391 18 193 927
391 18 193 927
390 18 197 927
390 18 197 927
389 18 197 927
389 18 197 927
388 18 202 927
388 18 199 927
387 18 201 927
387 18 201 927
386 18 205 927
385 18 206 927
385 18 208 927
384 18 210 927
383 18 214 927
383 18 212 927
382 18 213 927
381 18 213 927
380 18 214 927
380 18 217 927
379 18 219 927
378 18 222 927
377 18 220 927
377 18 222 927
376 18 225 927
376 18 226 927
375 18 225 927
374 18 226 927
374 18 226 927
373 18 226 927
373 18 225 927
372 18 225 927
371 18 226 927
371 18 227 927
370 18 226 927
369 18 226 927
369 18 226 927
368 18 226 927
367 18 226 927
367 18 225 927
366 18 224 927
365 18 224 927
364 18 225 927
364 18 224 927
363 18 225 927
362 18 226 927
361 18 225 927
360 18 227 927
359 18 229 927
358 18 231 927
358 18 233 927
357 18 233 927
356 18 235 927
355 18 236 927
354 18 237 927
354 18 239 927
353 18 240 927
352 18 240 927
351 18 242 927
350 18 242 927
350 18 243 927
349 18 243 927
348 18 244 927
347 18 245 927
346 18 245 927
345 18 245 927
345 18 245 927
344 18 245 927
343 18 244 927
343 18 243 927
342 18 243 927
341 18 244 927
340 18 244 927
340 18 244 927
339 18 244 927
339 18 244 927
338 18 244 927
337 18 244 927
337 18 244 927
336 18 244 927
335 18 245 927
335 18 246 927
334 18 245 927
334 18 245 927
333 18 245 927
333 18 246 927
332 18 247 927
331 18 247 927
331 18 247 927
330 18 249 927
330 18 249 927
329 18 248 927
329 18 249 927
328 18 249 927
327 18 249 927
327 18 248 927
326 18 249 927
325 18 249 927
325 18 250 927
324 18 250 927
324 18 250 927
323 18 250 927
322 18 250 927
322 18 250 927
321 18 250 927
320 18 250 927
320 18 251 927
319 18 251 927
318 18 251 927
318 18 251 927
317 18 252 927
316 18 253 927
315 18 253 927
315 18 253 927
314 18 254 927
314 18 254 927
313 18 254 927
312 18 255 927
311 18 255 927
311 18 254 927
310 18 254 927
309 18 255 927
309 18 256 927
308 18 257 927
307 18 258 927
306 18 258 927
306 18 258 927
305 18 258 927
304 18 259 927
303 18 259 927
303 18 259 927
302 18 258 927
301 18 258 927
300 18 258 927
300 18 259 927
299 18 259 927
298 18 260 927
297 18 259 927
297 18 259 927
296 18 260 927
295 18 260 927
294 18 260 927
293 18 261 927
293 18 261 927
292 18 261 927
291 18 260 927
291 18 260 927
290 18 259 927
289 18 259 927
288 18 260 927
287 18 261 927
287 18 262 927
286 18 262 927
285 18 262 927
284 18 262 927
283 18 262 927
283 18 262 927
282 18 262 927
281 18 262 927
280 18 262 927
279 18 262 927
279 18 262 927
278 18 261 927
277 18 261 927
277 18 262 927
276 18 262 927
275 18 263 927
274 18 264 927
273 18 264 927
273 18 264 927
272 18 264 927
271 18 264 927
271 18 264 927
270 18 264 927
269 18 265 927
268 18 264 927
267 18 265 927
266 18 265 927
265 18 266 927
265 18 266 927
264 18 265 927
263 18 266 927
262 18 266 927
261 18 266 927
260 18 266 927
260 18 265 927
259 18 266 927
258 18 265 927
257 18 265 927
256 18 264 927
255 18 264 927
254 18 264 927
253 18 264 927
253 18 264 927
252 18 263 927
251 18 263 927
250 18 264 927
249 18 264 927
249 18 263 927
248 18 263 927
247 18 263 927
246 18 263 927
246 18 263 927
245 18 263 927
244 18 264 927
243 18 263 927
243 18 263 927
242 18 263 927
241 18 264 927
240 18 264 927
240 18 264 927
239 18 264 927
238 18 264 927
237 18 264 927
237 18 264 927
236 18 264 927
235 18 265 927
234 18 265 927
233 18 265 927
232 18 265 927
232 18 265 927
231 18 264 927
230 18 264 927
229 18 265 927
228 18 265 927
228 18 265 927
227 18 265 927
226 18 265 927
225 18 265 927
225 18 265 927
224 18 264 927
223 18 264 927
222 18 265 927
222 18 265 927
221 18 265 927
220 18 264 927
220 18 264 927
219 18 264 927
219 18 263 927
218 18 263 927
217 18 264 927
217 18 264 927
216 18 263 927
216 18 263 927
215 18 263 927
214 18 264 927
214 18 263 927
213 18 263 927
213 18 263 927
212 18 262 927
211 18 263 927
210 18 263 927
210 18 263 927
209 18 262 927
208 18 262 927
207 18 263 927
207 18 262 927
206 18 262 927
205 18 262 927
204 18 262 927
203 18 262 927
203 18 262 927
202 18 261 927
201 18 261 927
200 18 261 927
199 18 261 927
198 18 261 927
197 18 261 927
196 18 260 927
196 18 261 927
195 18 260 927
194 18 259 927
193 18 259 927
192 18 259 927
191 18 259 927
190 18 259 927
189 18 259 927
188 18 259 927
187 18 259 927
186 18 259 927
185 18 258 927
184 18 258 927
183 18 258 927
182 18 259 927
181 18 258 927
180 18 257 927
179 18 257 927
178 18 257 927
177 18 258 927
177 18 257 927
176 18 257 927
175 18 257 927
174 18 257 927
173 18 257 927
172 18 256 927
171 18 256 927
171 18 255 927
170 18 255 927
169 18 255 927
168 18 255 927
168 18 255 927
167 18 255 927
166 18 255 927
165 18 255 927
164 18 255 927
164 18 255 927
163 18 256 927
162 18 255 927
161 18 255 927
160 18 255 927
159 18 256 927
159 18 255 927
158 18 255 927
157 18 254 927
157 18 254 927
156 18 254 927
155 18 254 927
154 18 254 927
153 18 254 927
153 18 254 927
152 18 253 927
151 18 253 927
151 18 253 927
150 18 253 927
149 18 252 927
148 18 251 927
147 18 250 927
147 18 250 927
146 18 249 927
145 18 249 927
144 18 249 927
143 18 248 927
143 18 248 927
142 18 248 927
141 18 247 927
140 18 247 927
140 18 246 927
139 18 246 927
138 18 245 927
137 18 245 927
136 18 245 927
135 18 245 927
134 18 244 927
134 18 243 927
133 18 243 927
132 18 243 927
131 18 243 927
131 18 242 927
130 18 242 927
129 18 241 927
128 18 241 927
127 18 241 927
126 18 239 927
125 18 238 927
124 18 237 927
123 18 236 927
122 18 237 927
121 18 235 927
120 18 236 927
119 18 236 927
118 18 235 927
117 18 235 927
116 18 235 927
115 18 234 927
114 18 234 927
113 18 233 927
112 18 233 927
111 18 233 927
110 18 232 927
109 18 232 927
108 18 231 927
107 18 230 927
106 18 230 927
105 18 230 927
104 18 230 927
103 18 230 927
102 18 229 927
101 18 230 927
100 18 229 927
99 18 228 927
99 18 227 927
98 18 227 927
97 18 227 927
96 18 226 927
95 18 226 927
94 18 225 927
93 18 224 927
92 18 224 927
91 18 224 927
90 18 224 927
90 18 223 927
89 18 223 927
88 18 222 927
87 18 221 927
86 18 222 927
86 18 221 927
85 18 220 927
84 18 220 927
84 18 219 927
83 18 218 927
82 18 218 927
81 18 217 927
81 18 216 927
80 18 216 927
80 18 215 927
79 18 215 927
78 18 215 927
78 18 215 927
77 18 214 927
77 18 213 927
76 18 214 927
76 18 212 927
75 18 213 927
74 18 213 927
74 18 213 927
73 18 212 927
73 18 211 927
72 18 210 927
72 18 209 927
71 18 208 927
71 18 207 927
70 18 206 927
69 18 206 927
69 18 206 927
68 18 205 927
67 18 205 927
67 18 202 927
66 18 201 927
66 18 201 927
65 18 200 927
65 18 199 927
64 18 198 927
64 18 195 927
63 18 194 927
63 18 192 927
62 18 190 927
62 18 190 927
61 18 190 927
61 18 189 927
60 18 188 927
60 18 186 927
60 18 184 927
60 18 181 927
59 18 180 927
59 18 178 927
58 18 177 927
58 18 178 927
58 18 178 927
57 18 177 927
57 18 176 927
57 18 175 927
56 18 173 927
56 18 175 927
56 18 174 927
55 18 173 927
55 18 175 927
55 18 174 927
54 18 173 927
54 18 173 927
54 18 174 927
53 18 174 927
53 18 174 927
52 18 175 927
52 18 173 927
51 18 172 927
52 19 142 899
53 19 143 899
54 19 143 899
54 19 140 899
55 19 138 899
55 19 138 899
55 19 140 899
56 19 140 899
56 19 139 899
57 19 138 899
57 19 139 899
57 19 139 899
57 19 137 899
58 19 135 899
58 19 134 899
58 19 133 899
59 19 132 899
59 19 130 899
59 19 129 899
60 19 128 899
60 19 130 899
60 19 126 899
60 19 122 899
61 19 122 899
61 19 121 899
61 19 120 899
62 19 118 899
62 19 115 899
63 19 114 899
63 19 112 899
63 19 110 899
64 19 107 899
64 19 106 899
64 19 106 899
65 19 105 899
65 19 103 899
66 19 102 899
66 19 101 899
66 19 99 899
67 19 97 899
67 19 95 899
68 19 94 899
68 19 94 899
68 19 93 899
69 19 94 899
69 19 91 899
69 19 89 899
70 19 87 899
70 19 85 899
70 19 86 899
71 19 85 899
71 19 84 899
71 19 83 899
72 19 81 899
72 19 79 899
72 19 78 899
73 19 78 899
73 19 77 899
74 19 76 899
74 19 74 899
75 19 75 899
75 19 74 899
76 19 73 899
76 19 71 899
76 19 70 899
77 19 70 899
77 19 71 899
78 19 71 899
78 19 71 899
78 19 70 899
79 19 69 899
79 19 69 899
80 19 68 899
80 19 68 899
81 19 67 899
81 19 67 899
82 19 65 899
82 19 65 899
83 19 65 899
83 19 65 899
84 19 64 899
84 19 64 899
85 19 64 899
85 19 64 899
86 19 63 899
87 19 62 899
88 19 60 899
89 19 59 899
90 19 59 899
91 19 58 899
92 19 57 899
93 19 56 899
94 19 55 899
95 19 54 899
96 19 53 899
97 19 53 899
99 19 52 899
100 19 50 899
101 19 49 899
102 19 47 899
103 19 47 899
105 19 46 899
106 19 45 899
107 19 44 899
108 19 43 899
109 19 43 899
110 19 42 899
112 19 41 899
113 19 41 899
114 19 40 899
115 19 39 899
116 19 39 899
117 19 38 899
118 19 37 899
119 19 37 899
120 19 36 899
121 19 36 899
121 19 36 899
122 19 35 899
123 19 35 899
124 19 35 899
125 19 34 899
126 19 33 899
127 19 32 899
128 19 31 899
129 19 31 899
130 19 31 899
131 19 31 899
132 19 30 899
133 19 30 899
134 19 29 899
135 19 29 899
136 19 29 899
137 19 28 899
138 19 27 899
139 19 27 899
140 19 26 899
141 19 26 899
142 19 26 899
143 19 26 899
144 19 25 899
145 19 26 899
146 19 26 899
147 19 26 899
148 19 25 899
149 19 25 899
150 19 25 899
151 19 25 899
153 19 24 899
154 19 24 899
155 19 23 899
156 19 23 899
157 19 23 899
158 19 23 899
159 19 23 899
160 19 23 899
161 19 23 899
162 19 23 899
163 19 23 899
164 19 22 899
165 19 22 899
166 19 22 899
167 19 22 899
168 19 22 899
169 19 22 899
170 19 22 899
171 19 22 899
172 19 22 899
173 19 22 899
174 19 22 899
175 19 22 899
176 19 22 899
177 19 22 899
178 19 22 899
179 19 22 899
180 19 22 899
182 19 22 899
183 19 21 899
184 19 21 899
185 19 21 899
186 19 21 899
187 19 21 899
188 19 21 899
189 19 21 899
190 19 21 899
191 19 21 899
192 19 21 899
194 19 21 899
195 19 21 899
196 19 21 899
197 19 21 899
198 19 21 899
199 19 22 899
200 19 22 899
201 19 21 899
202 19 21 899
204 19 21 899
205 19 21 899
206 19 21 899
208 19 21 899
209 19 21 899
210 19 22 899
212 19 22 899
213 19 22 899
215 19 22 899
216 19 22 899
217 19 22 899
219 19 22 899
220 19 22 899
221 19 22 899
222 19 22 899
224 19 22 899
225 19 22 899
226 19 22 899
228 19 22 899
229 19 22 899
230 19 22 899
232 19 22 899
233 19 22 899
234 19 22 899
235 19 22 899
236 19 22 899
237 19 22 899
238 19 22 899
239 19 22 899
241 19 22 899
242 19 22 899
244 19 22 899
245 19 22 899
246 19 22 899
248 19 22 899
249 19 22 899
250 19 21 899
251 19 21 899
252 19 21 899
253 19 21 899
255 19 21 899
256 19 21 899
257 19 21 899
258 19 21 899
259 19 21 899
260 19 21 899
261 19 21 899
262 19 21 899
263 19 21 899
264 19 21 899
264 19 21 899
265 19 21 899
266 19 22 899
267 19 22 899
268 19 22 899
269 19 22 899
270 19 22 899
271 19 22 899
272 19 23 899
273 19 23 899
274 19 24 899
276 19 24 899
277 19 25 899
278 19 24 899
279 19 25 899
280 19 25 899
281 19 25 899
283 19 25 899
284 19 26 899
285 19 26 899
287 19 26 899
288 19 26 899
290 19 26 899
291 19 26 899
292 19 26 899
293 19 27 899
294 19 27 899
295 19 28 899
297 19 28 899
298 19 28 899
299 19 28 899
300 19 29 899
301 19 29 899
302 19 30 899
303 19 30 899
304 19 31 899
305 19 31 899
306 19 31 899
307 19 31 899
308 19 32 899
309 19 32 899
310 19 32 899
311 19 33 899
312 19 33 899
313 19 34 899
314 19 34 899
315 19 35 899
316 19 35 899
317 19 36 899
319 19 37 899
320 19 38 899
321 19 38 899
322 19 38 899
324 19 39 899
325 19 40 899
326 19 40 899
327 19 41 899
328 19 42 899
329 19 43 899
330 19 43 899
331 19 44 899
332 19 45 899
333 19 46 899
334 19 46 899
335 19 47 899
336 19 48 899
336 19 49 899
337 19 49 899
338 19 50 899
339 19 51 899
340 19 51 899
340 19 53 899
341 19 53 899
342 19 54 899
343 19 55 899
344 19 56 899
345 19 57 899
347 19 57 899
348 19 58 899
349 19 59 899
350 19 60 899
351 19 61 899
353 19 63 899
354 19 64 899
355 19 64 899
356 19 66 899
358 19 67 899
359 19 68 899
360 19 69 899
361 19 70 899
362 19 72 899
363 19 74 899
364 19 75 899
364 19 76 899
365 19 76 899
366 19 77 899
367 19 77 899
367 19 79 899
368 19 79 899
368 19 80 899
369 19 80 899
369 19 81 899
369 19 82 899
370 19 83 899
370 19 84 899
371 19 84 899
371 19 84 899
372 19 86 899
372 19 86 899
373 19 87 899
373 19 87 899
374 19 87 899
374 19 88 899
375 19 88 899
375 19 90 899
376 19 91 899
376 19 93 899
377 19 94 899
378 19 95 899
378 19 96 899
379 19 96 899
379 19 97 899
380 19 97 899
380 19 97 899
381 19 99 899
381 19 100 899
382 19 102 899
382 19 103 899
382 19 104 899
383 19 104 899
383 19 104 899
384 19 105 899
384 19 106 899
384 19 107 899
385 19 108 899
385 19 110 899
385 19 110 899
385 19 110 899
386 19 112 899
386 19 113 899
386 19 115 899
387 19 116 899
387 19 118 899
387 19 118 899
388 19 118 899
388 19 119 899
389 19 120 899
389 19 121 899
389 19 123 899
390 19 124 899
390 19 125 899
390 19 127 899
391 19 126 899
391 19 127 899
391 19 127 899
392 19 128 899
392 19 129 899
393 19 129 899
393 19 129 899
393 19 129 899
394 19 128 899
394 19 129 899
395 19 131 899
395 19 131 899
395 19 132 899
396 19 133 899
396 19 133 899
396 19 132 899
397 19 131 899
397 19 133 899
397 19 134 899
398 19 135 899
398 19 138 899
399 19 139 899
399 19 139 899
400 19 139 899
400 19 139 899
400 19 141 899
401 19 141 899
401 19 143 899
402 19 144 899
402 19 144 899
403 19 143 899
403 19 145 899
404 19 146 899
404 19 147 899
405 19 147 899
405 19 150 899
405 19 151 899
406 19 152 899
406 19 152 899
406 19 153 899
406 19 154 899
406 19 155 899
406 19 156 899
406 19 158 899
406 19 160 899
406 19 161 899
405 19 162 899
405 19 164 899
405 19 164 899
404 19 165 899
404 19 169 899
403 19 172 899
402 19 174 899
402 19 175 899
401 19 176 899
400 19 175 899
400 19 179 899
399 19 179 899
398 19 180 899
398 19 181 899
397 19 181 899
397 19 183 899
396 19 184 899
395 19 184 899
395 19 185 899
394 19 189 899
394 19 190 899
393 19 192 899
393 19 193 899
392 19 197 899
392 19 196 899
391 19 195 899
391 19 196 899
390 19 197 899
390 19 201 899
389 19 203 899
389 19 201 899
388 19 201 899
388 19 201 899
388 19 201 899
387 19 204 899
387 19 205 899
386 19 206 899
385 19 209 899
385 19 212 899
384 19 209 899
384 19 211 899
383 19 214 899
383 19 216 899
382 19 213 899
381 19 214 899
381 19 217 899
380 19 217 899
380 19 216 899
379 19 217 899
378 19 218 899
378 19 220 899
377 19 221 899
376 19 222 899
376 19 223 899
375 19 222 899
375 19 221 899
375 19 221 899
374 19 220 899
374 19 220 899
373 19 221 899
373 19 221 899
372 19 221 899
372 19 223 899
371 19 223 899
371 19 224 899
370 19 223 899
370 19 225 899
369 19 227 899
368 19 226 899
368 19 226 899
367 19 225 899
367 19 226 899
366 19 228 899
365 19 229 899
365 19 231 899
364 19 232 899
363 19 233 899
363 19 232 899
362 19 231 899
361 19 233 899
360 19 232 899
360 19 231 899
359 19 232 899
358 19 234 899
357 19 235 899
357 19 236 899
356 19 235 899
355 19 236 899
354 19 237 899
354 19 238 899
353 19 239 899
352 19 238 899
352 19 239 899
351 19 239 899
350 19 239 899
349 19 240 899
348 19 242 899
347 19 244 899
346 19 245 899
346 19 246 899
345 19 245 899
344 19 247 899
343 19 246 899
342 19 246 899
342 19 245 899
341 19 246 899
340 19 247 899
339 19 246 899
338 19 246 899
337 19 247 899
336 19 247 899
335 19 248 899
334 19 248 899
333 19 249 899
333 19 249 899
332 19 250 899
331 19 249 899
330 19 249 899
329 19 249 899
328 19 249 899
327 19 249 899
326 19 249 899
325 19 249 899
324 19 249 899
323 19 249 899
322 19 249 899
321 19 250 899
320 19 251 899
319 19 250 899
318 19 252 899
317 19 252 899
316 19 253 899
315 19 253 899
314 19 253 899
314 19 253 899
313 19 253 899
312 19 254 899
311 19 254 899
311 19 254 899
310 19 254 899
309 19 255 899
308 19 254 899
307 19 255 899
307 19 255 899
306 19 255 899
305 19 256 899
304 19 255 899
303 19 255 899
303 19 255 899
302 19 255 899
301 19 255 899
300 19 256 899
299 19 256 899
299 19 257 899
298 19 258 899
297 19 258 899
296 19 257 899
295 19 257 899
294 19 258 899
293 19 258 899
293 19 258 899
292 19 259 899
291 19 260 899
291 19 260 899
290 19 260 899
289 19 261 899
289 19 261 899
288 19 262 899
288 19 263 899
287 19 262 899
286 19 262 899
286 19 262 899
285 19 263 899
284 19 262 899
284 19 261 899
283 19 262 899
282 19 264 899
282 19 263 899
281 19 263 899
280 19 263 899
279 19 263 899
279 19 263 899
278 19 263 899
277 19 262 899
276 19 263 899
275 19 263 899
274 19 263 899
273 19 263 899
272 19 262 899
271 19 263 899
270 19 263 899
270 19 263 899
269 19 262 899
268 19 263 899
267 19 264 899
266 19 263 899
265 19 263 899
264 19 263 899
263 19 264 899
261 19 264 899
260 19 263 899
259 19 263 899
258 19 263 899
257 19 264 899
256 19 263 899
255 19 263 899
254 19 263 899
253 19 264 899
252 19 264 899
251 19 263 899
250 19 263 899
249 19 263 899
248 19 263 899
247 19 263 899
246 19 263 899
245 19 263 899
244 19 262 899
243 19 262 899
243 19 262 899
242 19 262 899
242 19 262 899
241 19 262 899
240 19 262 899
240 19 262 899
239 19 262 899
238 19 262 899
238 19 262 899
237 19 262 899
237 19 262 899
236 19 262 899
235 19 262 899
235 19 262 899
234 19 262 899
233 19 263 899
233 19 263 899
232 19 263 899
232 19 263 899
231 19 263 899
231 19 264 899
230 19 264 899
229 19 265 899
229 19 265 899
228 19 265 899
227 19 265 899
226 19 266 899
226 19 266 899
225 19 266 899
224 19 267 899
224 19 267 899
223 19 267 899
222 19 267 899
221 19 267 899
220 19 267 899
220 19 266 899
219 19 266 899
218 19 266 899
217 19 266 899
216 19 266 899
215 19 266 899
215 19 266 899
214 19 266 899
213 19 266 899
212 19 266 899
211 19 265 899
211 19 265 899
210 19 265 899
209 19 264 899
208 19 264 899
208 19 264 899
207 19 264 899
206 19 263 899
205 19 263 899
204 19 263 899
203 19 263 899
202 19 263 899
201 19 263 899
201 19 263 899
200 19 263 899
199 19 263 899
198 19 262 899
197 19 262 899
196 19 262 899
195 19 262 899
194 19 262 899
193 19 262 899
192 19 262 899
191 19 262 899
190 19 262 899
189 19 262 899
188 19 261 899
187 19 261 899
186 19 261 899
185 19 261 899
184 19 260 899
184 19 260 899
183 19 259 899
182 19 259 899
181 19 259 899
180 19 258 899
179 19 258 899
178 19 259 899
177 19 258 899
176 19 257 899
174 19 257 899
173 19 257 899
172 19 256 899
171 19 255 899
170 19 255 899
168 19 254 899
167 19 254 899
166 19 254 899
165 19 254 899
164 19 254 899
163 19 254 899
161 19 254 899
160 19 254 899
159 19 253 899
158 19 253 899
157 19 253 899
156 19 253 899
155 19 253 899
154 19 252 899
152 19 252 899
151 19 252 899
150 19 251 899
149 19 251 899
149 19 251 899
148 19 251 899
147 19 251 899
146 19 251 899
145 19 251 899
144 19 250 899
143 19 249 899
142 19 249 899
142 19 248 899
141 19 248 899
140 19 248 899
139 19 247 899
139 19 246 899
138 19 246 899
137 19 246 899
136 19 246 899
135 19 246 899
134 19 245 899
133 19 244 899
132 19 243 899
131 19 242 899
131 19 242 899
130 19 241 899
129 19 240 899
128 19 238 899
127 19 239 899
126 19 238 899
125 19 238 899
124 19 238 899
123 19 237 899
122 19 237 899
121 19 236 899
120 19 235 899
119 19 234 899
118 19 233 899
117 19 232 899
116 19 231 899
116 19 231 899
115 19 231 899
114 19 230 899
113 19 231 899
112 19 230 899
111 19 230 899
110 19 231 899
109 19 231 899
108 19 230 899
108 19 230 899
107 19 229 899
106 19 230 899
106 19 229 899
105 19 228 899
104 19 229 899
103 19 229 899
103 19 228 899
102 19 228 899
101 19 228 899
100 19 228 899
100 19 228 899
99 19 228 899
98 19 228 899
98 19 227 899
97 19 226 899
96 19 225 899
95 19 225 899
95 19 225 899
94 19 223 899
93 19 223 899
92 19 223 899
92 19 222 899
91 19 222 899
90 19 221 899
89 19 221 899
88 19 221 899
88 19 221 899
87 19 221 899
86 19 221 899
86 19 220 899
85 19 220 899
84 19 220 899
84 19 219 899
83 19 219 899
82 19 219 899
81 19 218 899
80 19 218 899
80 19 217 899
79 19 216 899
78 19 215 899
77 19 214 899
76 19 213 899
76 19 212 899
75 19 211 899
74 19 210 899
73 19 208 899
72 19 207 899
71 19 206 899
71 19 204 899
70 19 204 899
69 19 202 899
68 19 201 899
68 19 199 899
67 19 198 899
66 19 196 899
66 19 194 899
65 19 193 899
65 19 193 899
64 19 191 899
63 19 190 899
63 19 189 899
62 19 188 899
62 19 188 899
61 19 187 899
61 19 187 899
60 19 186 899
60 19 185 899
59 19 184 899
59 19 183 899
58 19 183 899
58 19 183 899
57 19 182 899
57 19 182 899
56 19 181 899
55 20 127 902
56 20 127 902
56 20 128 902
57 20 127 902
57 20 126 902
58 20 126 902
58 20 124 902
58 20 124 902
59 20 123 902
59 20 122 902
60 20 121 902
60 20 119 902
60 20 117 902
61 20 115 902
61 20 114 902
62 20 113 902
62 20 111 902
63 20 109 902
63 20 107 902
64 20 105 902
64 20 103 902
65 20 100 902
65 20 98 902
65 20 99 902
66 20 97 902
66 20 96 902
66 20 97 902
67 20 95 902
67 20 92 902
68 20 92 902
68 20 91 902
69 20 90 902
69 20 89 902
70 20 87 902
70 20 87 902
70 20 85 902
71 20 83 902
71 20 84 902
72 20 82 902
72 20 82 902
73 20 81 902
73 20 80 902
74 20 78 902
74 20 76 902
75 20 76 902
75 20 74 902
76 20 71 902
77 20 71 902
78 20 71 902
78 20 70 902
79 20 69 902
79 20 69 902
80 20 68 902
81 20 68 902
82 20 67 902
82 20 65 902
83 20 64 902
84 20 64 902
85 20 62 902
86 20 61 902
86 20 61 902
87 20 60 902
88 20 58 902
89 20 57 902
89 20 57 902
90 20 56 902
91 20 55 902
92 20 54 902
92 20 53 902
93 20 53 902
94 20 52 902
95 20 51 902
95 20 50 902
96 20 50 902
97 20 49 902
97 20 50 902
98 20 49 902
99 20 48 902
99 20 48 902
100 20 48 902
101 20 47 902
101 20 47 902
102 20 46 902
102 20 46 902
103 20 45 902
104 20 44 902
104 20 44 902
105 20 44 902
105 20 43 902
106 20 43 902
107 20 42 902
107 20 41 902
108 20 41 902
109 20 41 902
110 20 41 902
110 20 40 902
111 20 40 902
112 20 39 902
113 20 39 902
114 20 38 902
114 20 38 902
115 20 37 902
116 20 37 902
117 20 37 902
118 20 37 902
119 20 36 902
120 20 35 902
121 20 35 902
122 20 34 902
123 20 34 902
124 20 33 902
125 20 33 902
126 20 32 902
127 20 32 902
128 20 31 902
129 20 31 902
130 20 30 902
131 20 29 902
132 20 29 902
133 20 28 902
134 20 28 902
136 20 28 902
137 20 27 902
138 20 27 902
139 20 27 902
140 20 27 902
141 20 27 902
142 20 26 902
143 20 26 902
144 20 26 902
145 20 26 902
146 20 25 902
147 20 25 902
148 20 25 902
149 20 25 902
150 20 24 902
151 20 25 902
152 20 24 902
153 20 25 902
154 20 24 902
155 20 24 902
156 20 24 902
157 20 24 902
158 20 24 902
159 20 24 902
160 20 24 902
161 20 24 902
162 20 24 902
163 20 23 902
163 20 24 902
164 20 23 902
165 20 23 902
166 20 23 902
167 20 23 902
169 20 23 902
170 20 23 902
171 20 23 902
172 20 23 902
173 20 22 902
174 20 23 902
175 20 23 902
177 20 22 902
178 20 22 902
179 20 21 902
180 20 21 902
181 20 21 902
183 20 21 902
184 20 21 902
185 20 21 902
186 20 21 902
187 20 21 902
188 20 21 902
190 20 21 902
191 20 21 902
192 20 21 902
194 20 21 902
195 20 21 902
196 20 21 902
198 20 21 902
199 20 21 902
200 20 21 902
201 20 21 902
203 20 21 902
204 20 21 902
205 20 21 902
206 20 21 902
207 20 22 902
209 20 21 902
210 20 21 902
211 20 21 902
212 20 21 902
213 20 21 902
214 20 21 902
215 20 21 902
216 20 21 902
217 20 20 902
218 20 21 902
219 20 21 902
220 20 21 902
221 20 21 902
222 20 21 902
223 20 21 902
224 20 22 902
225 20 22 902
226 20 22 902
227 20 22 902
228 20 22 902
229 20 22 902
230 20 22 902
231 20 22 902
233 20 22 902
234 20 23 902
235 20 22 902
236 20 22 902
238 20 23 902
239 20 23 902
240 20 23 902
241 20 22 902
242 20 22 902
243 20 22 902
244 20 22 902
245 20 22 902
247 20 22 902
248 20 22 902
249 20 22 902
251 20 22 902
252 20 21 902
253 20 21 902
254 20 22 902
256 20 21 902
257 20 22 902
258 20 21 902
259 20 21 902
260 20 21 902
261 20 21 902
262 20 21 902
263 20 21 902
265 20 22 902
266 20 22 902
267 20 22 902
268 20 22 902
269 20 22 902
270 20 22 902
271 20 22 902
272 20 22 902
273 20 22 902
274 20 22 902
275 20 22 902
276 20 22 902
277 20 23 902
278 20 23 902
279 20 23 902
280 20 23 902
281 20 23 902
282 20 23 902
283 20 24 902
284 20 24 902
285 20 25 902
286 20 25 902
287 20 25 902
288 20 25 902
289 20 25 902
290 20 25 902
290 20 26 902
291 20 26 902
292 20 27 902
293 20 28 902
294 20 28 902
295 20 27 902
296 20 27 902
297 20 27 902
298 20 28 902
299 20 29 902
301 20 29 902
302 20 29 902
303 20 30 902
304 20 30 902
305 20 30 902
306 20 30 902
307 20 31 902
308 20 31 902
309 20 32 902
310 20 32 902
311 20 33 902
312 20 33 902
313 20 34 902
314 20 34 902
315 20 34 902
316 20 35 902
317 20 36 902
318 20 36 902
319 20 37 902
319 20 37 902
320 20 37 902
321 20 38 902
322 20 38 902
323 20 39 902
324 20 39 902
324 20 40 902
325 20 40 902
326 20 40 902
326 20 41 902
327 20 41 902
328 20 41 902
328 20 42 902
329 20 42 902
330 20 43 902
330 20 43 902
331 20 43 902
332 20 44 902
333 20 45 902
333 20 45 902
334 20 46 902
335 20 47 902
336 20 48 902
336 20 48 902
337 20 49 902
338 20 49 902
339 20 50 902
340 20 51 902
341 20 52 902
342 20 52 902
342 20 53 902
343 20 54 902
344 20 55 902
346 20 56 902
347 20 57 902
348 20 58 902
349 20 59 902
350 20 60 902
351 20 61 902
352 20 62 902
353 20 64 902
354 20 64 902
355 20 65 902
355 20 66 902
356 20 67 902
357 20 68 902
358 20 70 902
359 20 71 902
360 20 72 902
361 20 74 902
362 20 75 902
363 20 76 902
364 20 78 902
365 20 79 902
366 20 80 902
367 20 82 902
367 20 83 902
368 20 84 902
369 20 85 902
370 20 86 902
371 20 87 902
372 20 88 902
373 20 90 902
374 20 91 902
375 20 92 902
375 20 94 902
376 20 94 902
377 20 95 902
378 20 96 902
378 20 97 902
379 20 97 902
379 20 100 902
380 20 101 902
380 20 103 902
381 20 104 902
382 20 104 902
382 20 106 902
383 20 107 902
383 20 108 902
384 20 109 902
384 20 111 902
385 20 113 902
385 20 115 902
386 20 118 902
387 20 119 902
387 20 119 902
388 20 122 902
388 20 122 902
389 20 122 902
389 20 125 902
390 20 128 902
390 20 128 902
391 20 129 902
391 20 129 902
391 20 131 902
392 20 134 902
392 20 136 902
393 20 135 902
393 20 137 902
394 20 139 902
394 20 140 902
394 20 139 902
395 20 137 902
395 20 137 902
395 20 137 902
396 20 139 902
396 20 140 902
396 20 143 902
396 20 144 902
397 20 143 902
397 20 142 902
397 20 142 902
398 20 143 902
398 20 143 902
398 20 144 902
399 20 143 902
399 20 143 902
399 20 145 902
399 20 145 902
400 20 145 902
400 20 144 902
401 20 146 902
401 20 148 902
401 20 149 902
402 20 151 902
402 20 152 902
403 20 153 902
403 20 154 902
403 20 158 902
403 20 161 902
403 20 162 902
403 20 166 902
403 20 168 902
403 20 170 902
403 20 171 902
403 20 175 902
403 20 176 902
403 20 176 902
402 20 179 902
402 20 180 902
402 20 181 902
401 20 182 902
401 20 183 902
400 20 184 902
399 20 184 902
398 20 188 902
398 20 191 902
397 20 192 902
396 20 191 902
396 20 192 902
395 20 192 902
395 20 191 902
394 20 190 902
394 20 190 902
393 20 190 902
393 20 190 902
392 20 190 902
392 20 192 902
391 20 192 902
390 20 196 902
390 20 197 902
389 20 199 902
389 20 199 902
389 20 200 902
388 20 200 902
388 20 201 902
387 20 199 902
387 20 201 902
386 20 203 902
386 20 204 902
385 20 205 902
384 20 208 902
384 20 209 902
383 20 213 902
382 20 214 902
382 20 214 902
381 20 216 902
380 20 217 902
380 20 218 902
379 20 217 902
378 20 218 902
378 20 219 902
377 20 220 902
376 20 222 902
375 20 225 902
374 20 223 902
374 20 224 902
373 20 222 902
372 20 221 902
371 20 220 902
371 20 223 902
370 20 222 902
369 20 223 902
369 20 222 902
368 20 222 902
367 20 224 902
367 20 224 902
366 20 224 902
366 20 226 902
365 20 226 902
365 20 227 902
364 20 226 902
363 20 227 902
363 20 227 902
363 20 226 902
362 20 226 902
362 20 227 902
361 20 228 902
360 20 230 902
359 20 232 902
359 20 231 902
358 20 232 902
357 20 233 902
356 20 235 902
356 20 237 902
355 20 238 902
354 20 238 902
353 20 240 902
353 20 240 902
352 20 241 902
351 20 242 902
350 20 243 902
349 20 243 902
348 20 244 902
347 20 245 902
347 20 247 902
346 20 248 902
345 20 249 902
344 20 248 902
344 20 248 902
343 20 249 902
342 20 248 902
342 20 249 902
341 20 249 902
340 20 248 902
340 20 248 902
339 20 247 902
339 20 246 902
338 20 246 902
337 20 247 902
337 20 247 902
336 20 247 902
336 20 247 902
335 20 247 902
335 20 247 902
334 20 246 902
334 20 246 902
333 20 246 902
333 20 247 902
332 20 247 902
331 20 247 902
331 20 247 902
330 20 247 902
330 20 247 902
329 20 248 902
328 20 248 902
328 20 249 902
327 20 250 902
326 20 250 902
326 20 250 902
325 20 250 902
324 20 250 902
324 20 251 902
323 20 252 902
322 20 252 902
321 20 252 902
321 20 253 902
320 20 253 902
319 20 253 902
318 20 254 902
318 20 254 902
317 20 254 902
316 20 254 902
315 20 254 902
314 20 255 902
313 20 255 902
312 20 254 902
311 20 255 902
311 20 256 902
310 20 256 902
309 20 256 902
308 20 257 902
307 20 257 902
306 20 258 902
305 20 258 902
304 20 259 902
303 20 258 902
302 20 257 902
302 20 258 902
301 20 259 902
300 20 259 902
299 20 259 902
298 20 260 902
297 20 260 902
296 20 260 902
296 20 260 902
295 20 260 902
294 20 261 902
293 20 261 902
293 20 261 902
292 20 261 902
291 20 261 902
291 20 261 902
290 20 261 902
289 20 261 902
289 20 260 902
288 20 261 902
287 20 262 902
286 20 262 902
285 20 262 902
285 20 262 902
284 20 262 902
284 20 262 902
283 20 262 902
282 20 262 902
281 20 262 902
281 20 263 902
280 20 263 902
279 20 262 902
278 20 263 902
278 20 263 902
277 20 264 902
276 20 263 902
275 20 264 902
274 20 263 902
274 20 264 902
273 20 264 902
272 20 265 902
271 20 264 902
270 20 264 902
269 20 264 902
268 20 264 902
267 20 265 902
266 20 264 902
265 20 264 902
264 20 264 902
263 20 264 902
262 20 264 902
261 20 265 902
260 20 264 902
259 20 264 902
259 20 264 902
258 20 264 902
257 20 264 902
256 20 265 902
255 20 264 902
254 20 263 902
253 20 264 902
252 20 264 902
251 20 264 902
251 20 264 902
250 20 264 902
249 20 264 902
248 20 264 902
248 20 264 902
247 20 264 902
247 20 264 902
246 20 263 902
245 20 263 902
245 20 264 902
244 20 264 902
243 20 264 902
243 20 264 902
242 20 263 902
242 20 263 902
241 20 264 902
241 20 264 902
240 20 263 902
240 20 262 902
239 20 262 902
238 20 261 902
238 20 262 902
237 20 262 902
236 20 262 902
236 20 262 902
235 20 262 902
234 20 262 902
234 20 262 902
233 20 262 902
232 20 262 902
232 20 262 902
231 20 262 902
230 20 261 902
230 20 261 902
229 20 261 902
228 20 261 902
228 20 261 902
227 20 261 902
226 20 262 902
226 20 262 902
225 20 263 902
225 20 263 902
224 20 262 902
223 20 262 902
223 20 262 902
222 20 263 902
221 20 262 902
220 20 262 902
220 20 262 902
219 20 261 902
218 20 261 902
217 20 261 902
217 20 262 902
216 20 262 902
215 20 262 902
214 20 262 902
214 20 262 902
213 20 262 902
212 20 262 902
211 20 261 902
210 20 262 902
210 20 262 902
209 20 262 902
208 20 262 902
207 20 261 902
207 20 262 902
206 20 262 902
205 20 262 902
205 20 262 902
204 20 262 902
203 20 263 902
203 20 262 902
202 20 262 902
202 20 261 902
201 20 261 902
201 20 261 902
200 20 261 902
199 20 261 902
199 20 260 902
198 20 260 902
198 20 260 902
197 20 260 902
196 20 259 902
196 20 259 902
195 20 259 902
194 20 258 902
193 20 258 902
193 20 258 902
192 20 258 902
191 20 257 902
190 20 257 902
189 20 258 902
188 20 257 902
187 20 258 902
186 20 257 902
184 20 258 902
183 20 257 902
182 20 257 902
181 20 257 902
180 20 258 902
179 20 257 902
178 20 257 902
177 20 257 902
175 20 257 902
174 20 257 902
173 20 257 902
172 20 257 902
171 20 256 902
170 20 256 902
169 20 256 902
168 20 257 902
168 20 256 902
167 20 257 902
166 20 256 902
165 20 256 902
164 20 256 902
163 20 256 902
162 20 256 902
162 20 256 902
161 20 255 902
160 20 256 902
159 20 255 902
158 20 255 902
157 20 255 902
156 20 255 902
156 20 255 902
155 20 255 902
154 20 255 902
153 20 255 902
152 20 255 902
151 20 255 902
150 20 255 902
149 20 254 902
148 20 254 902
147 20 253 902
146 20 253 902
145 20 252 902
144 20 251 902
143 20 251 902
142 20 250 902
141 20 249 902
140 20 249 902
138 20 248 902
137 20 247 902
136 20 246 902
135 20 245 902
134 20 244 902
133 20 243 902
131 20 242 902
130 20 242 902
129 20 241 902
128 20 240 902
127 20 239 902
125 20 238 902
124 20 236 902
123 20 235 902
122 20 235 902
121 20 234 902
120 20 232 902
119 20 232 902
118 20 231 902
117 20 231 902
115 20 230 902
114 20 230 902
113 20 230 902
112 20 229 902
111 20 230 902
110 20 229 902
109 20 228 902
108 20 228 902
107 20 228 902
106 20 228 902
105 20 227 902
104 20 227 902
103 20 228 902
102 20 229 902
102 20 228 902
101 20 229 902
100 20 229 902
99 20 229 902
98 20 229 902
97 20 228 902
97 20 228 902
96 20 227 902
95 20 227 902
95 20 227 902
94 20 226 902
93 20 226 902
92 20 226 902
92 20 225 902
91 20 224 902
90 20 223 902
89 20 222 902
88 20 222 902
87 20 221 902
86 20 220 902
86 20 219 902
85 20 218 902
84 20 217 902
83 20 217 902
82 20 216 902
81 20 215 902
80 20 214 902
79 20 214 902
78 20 213 902
78 20 212 902
77 20 211 902
76 20 210 902
75 20 210 902
75 20 209 902
74 20 208 902
73 20 207 902
73 20 206 902
72 20 205 902
72 20 204 902
71 20 203 902
70 20 203 902
69 20 201 902
69 20 200 902
68 20 197 902
67 20 194 902
67 20 192 902
66 20 190 902
66 20 186 902
65 20 187 902
64 20 185 902
64 20 184 902
63 20 181 902
63 20 181 902
62 20 179 902
62 20 177 902
61 20 174 902
61 20 175 902
60 20 174 902
60 20 173 902
59 20 171 902
59 20 170 902
59 20 169 902
58 20 167 902
58 20 168 902
57 20 170 902
57 20 171 902
57 20 171 902
56 20 171 902
56 20 171 902
56 20 171 902
55 20 171 902
54 20 172 902
54 20 170 902
53 20 169 902
53 20 170 902
52 20 169 902
53 21 132 899
54 21 129 899
54 21 130 899
54 21 130 899
55 21 129 899
55 21 127 899
56 21 127 899
56 21 127 899
57 21 126 899
57 21 127 899
57 21 125 899
58 21 124 899
58 21 123 899
58 21 123 899
58 21 120 899
59 21 118 899
59 21 118 899
59 21 119 899
60 21 116 899
60 21 113 899
60 21 111 899
60 21 113 899
61 21 113 899
61 21 114 899
61 21 115 899
61 21 115 899
62 21 115 899
62 21 114 899
62 21 112 899
62 21 111 899
62 21 111 899
63 21 112 899
63 21 113 899
63 21 113 899
63 21 113 899
64 21 112 899
64 21 111 899
64 21 109 899
64 21 110 899
64 21 111 899
65 21 110 899
65 21 110 899
65 21 108 899
65 21 105 899
66 21 101 899
66 21 101 899
66 21 100 899
66 21 99 899
66 21 98 899
67 21 97 899
67 21 95 899
67 21 94 899
67 21 93 899
68 21 89 899
68 21 90 899
68 21 90 899
68 21 89 899
69 21 88 899
69 21 87 899
69 21 86 899
70 21 85 899
70 21 83 899
70 21 81 899
70 21 82 899
71 21 80 899
71 21 80 899
71 21 79 899
72 21 79 899
72 21 79 899
73 21 78 899
73 21 77 899
73 21 76 899
74 21 75 899
74 21 75 899
75 21 73 899
75 21 72 899
76 21 72 899
77 21 72 899
77 21 71 899
78 21 69 899
78 21 69 899
79 21 68 899
80 21 68 899
80 21 68 899
81 21 68 899
82 21 67 899
82 21 66 899
83 21 64 899
84 21 64 899
85 21 63 899
85 21 63 899
86 21 62 899
87 21 61 899
87 21 60 899
88 21 59 899
88 21 59 899
89 21 58 899
89 21 59 899
90 21 58 899
91 21 57 899
91 21 56 899
92 21 55 899
93 21 54 899
93 21 54 899
94 21 54 899
95 21 54 899
95 21 53 899
96 21 52 899
97 21 51 899
97 21 51 899
98 21 50 899
99 21 50 899
100 21 50 899
101 21 49 899
101 21 48 899
102 21 46 899
103 21 46 899
104 21 45 899
105 21 45 899
106 21 44 899
106 21 43 899
107 21 43 899
108 21 42 899
109 21 41 899
110 21 41 899
111 21 39 899
112 21 39 899
113 21 39 899
113 21 38 899
114 21 37 899
115 21 37 899
116 21 36 899
117 21 35 899
118 21 35 899
119 21 34 899
120 21 34 899
121 21 34 899
122 21 33 899
123 21 33 899
124 21 33 899
125 21 33 899
126 21 33 899
126 21 32 899
127 21 32 899
128 21 31 899
129 21 30 899
130 21 30 899
131 21 30 899
132 21 29 899
133 21 28 899
134 21 28 899
135 21 28 899
136 21 28 899
137 21 28 899
138 21 28 899
139 21 27 899
140 21 27 899
142 21 26 899
143 21 26 899
144 21 26 899
145 21 25 899
146 21 25 899
147 21 25 899
148 21 25 899
149 21 25 899
150 21 25 899
151 21 25 899
152 21 25 899
153 21 25 899
155 21 25 899
156 21 25 899
157 21 25 899
158 21 24 899
159 21 24 899
160 21 24 899
161 21 24 899
162 21 25 899
163 21 25 899
164 21 25 899
165 21 25 899
166 21 25 899
167 21 25 899
168 21 25 899
169 21 25 899
169 21 25 899
170 21 24 899
171 21 24 899
173 21 24 899
173 21 24 899
174 21 23 899
175 21 23 899
176 21 23 899
177 21 23 899
178 21 23 899
179 21 23 899
180 21 23 899
181 21 23 899
182 21 22 899
182 21 22 899
183 21 23 899
184 21 23 899
185 21 23 899
186 21 22 899
187 21 22 899
188 21 22 899
189 21 22 899
190 21 22 899
191 21 22 899
191 21 22 899
192 21 22 899
193 21 22 899
194 21 23 899
194 21 23 899
195 21 23 899
196 21 23 899
197 21 22 899
198 21 23 899
198 21 23 899
199 21 22 899
200 21 22 899
201 21 22 899
201 21 22 899
202 21 22 899
203 21 22 899
204 21 22 899
205 21 22 899
206 21 22 899
207 21 22 899
208 21 22 899
209 21 22 899
210 21 22 899
211 21 21 899
212 21 21 899
213 21 21 899
214 21 21 899
215 21 21 899
216 21 21 899
217 21 21 899
218 21 21 899
219 21 21 899
220 21 21 899
221 21 21 899
222 21 21 899
223 21 21 899
224 21 21 899
226 21 21 899
227 21 21 899
228 21 21 899
229 21 21 899
230 21 21 899
231 21 21 899
232 21 21 899
233 21 21 899
234 21 21 899
235 21 21 899
236 21 21 899
237 21 21 899
239 21 21 899
240 21 21 899
241 21 21 899
243 21 21 899
244 21 21 899
246 21 21 899
247 21 21 899
249 21 21 899
250 21 21 899
252 21 21 899
253 21 21 899
255 21 21 899
256 21 21 899
258 21 21 899
260 21 21 899
261 21 21 899
263 21 21 899
264 21 21 899
265 21 21 899
267 21 21 899
268 21 22 899
269 21 22 899
270 21 22 899
272 21 22 899
273 21 22 899
274 21 23 899
275 21 23 899
276 21 23 899
277 21 23 899
278 21 24 899
279 21 24 899
281 21 24 899
282 21 25 899
282 21 25 899
283 21 26 899
284 21 26 899
285 21 27 899
286 21 27 899
287 21 28 899
288 21 27 899
289 21 27 899
290 21 27 899
291 21 27 899
292 21 27 899
293 21 28 899
294 21 28 899
295 21 28 899
296 21 28 899
296 21 29 899
297 21 29 899
298 21 29 899
299 21 30 899
300 21 30 899
301 21 30 899
302 21 31 899
303 21 30 899
304 21 31 899
305 21 31 899
306 21 31 899
307 21 32 899
308 21 33 899
309 21 33 899
311 21 34 899
312 21 35 899
313 21 35 899
314 21 36 899
316 21 36 899
317 21 37 899
318 21 37 899
319 21 38 899
321 21 38 899
322 21 38 899
323 21 39 899
325 21 39 899
326 21 40 899
327 21 41 899
328 21 42 899
329 21 43 899
330 21 44 899
331 21 44 899
332 21 45 899
333 21 46 899
334 21 47 899
335 21 47 899
336 21 48 899
337 21 50 899
337 21 50 899
338 21 51 899
339 21 52 899
340 21 52 899
341 21 53 899
342 21 54 899
343 21 54 899
344 21 55 899
345 21 55 899
346 21 56 899
346 21 57 899
347 21 58 899
348 21 59 899
349 21 60 899
350 21 60 899
351 21 61 899
352 21 61 899
353 21 62 899
354 21 63 899
355 21 64 899
356 21 66 899
357 21 66 899
357 21 67 899
358 21 67 899
359 21 69 899
360 21 70 899
360 21 71 899
361 21 72 899
362 21 73 899
363 21 74 899
363 21 75 899
364 21 76 899
365 21 77 899
366 21 77 899
366 21 78 899
367 21 80 899
368 21 81 899
368 21 82 899
369 21 82 899
369 21 83 899
370 21 84 899
370 21 85 899
371 21 87 899
372 21 88 899
372 21 90 899
373 21 91 899
373 21 91 899
374 21 92 899
374 21 93 899
375 21 94 899
376 21 95 899
376 21 96 899
377 21 96 899
377 21 97 899
378 21 99 899
379 21 101 899
379 21 102 899
380 21 104 899
380 21 106 899
381 21 108 899
382 21 108 899
382 21 110 899
383 21 110 899
383 21 110 899
384 21 111 899
384 21 111 899
385 21 113 899
386 21 113 899
386 21 114 899
386 21 115 899
387 21 115 899
387 21 115 899
388 21 116 899
388 21 118 899
388 21 119 899
389 21 118 899
389 21 117 899
389 21 117 899
390 21 117 899
390 21 117 899
390 21 118 899
391 21 117 899
391 21 119 899
391 21 119 899
392 21 121 899
392 21 121 899
392 21 121 899
393 21 122 899
393 21 122 899
394 21 122 899
394 21 122 899
394 21 123 899
395 21 123 899
395 21 124 899
396 21 124 899
396 21 126 899
396 21 127 899
397 21 128 899
397 21 129 899
398 21 129 899
398 21 130 899
399 21 131 899
399 21 132 899
400 21 133 899
401 21 133 899
401 21 135 899
402 21 136 899
402 21 138 899
402 21 140 899
